548965.84,5129084.73,1060.86
548966.35,5129086.80,1061.21
548968.41,5129095.02,1062.51
548972.44,5129111.14,1064.96
548974.99,5129121.13,1065.72
548975.49,5129123.12,1065.87
548975.98,5129125.05,1066.13
548976.48,5129127.03,1066.28
548976.97,5129128.96,1066.52
548977.50,5129130.97,1066.42
548978.01,5129132.93,1066.42
548978.52,5129134.91,1066.41
548979.04,5129136.88,1066.27
548979.57,5129138.88,1066.04
548980.10,5129140.86,1065.80
548981.11,5129144.76,1065.72
548981.58,5129146.64,1066.00
548982.11,5129148.61,1065.63
548983.15,5129152.51,1065.14
548984.90,5129156.32,1065.37
548983.94,5129152.53,1065.22
548982.91,5129148.63,1065.59
548982.39,5129146.65,1065.87
548981.90,5129144.73,1065.75
548981.39,5129142.77,1065.85
548980.89,5129140.82,1065.82
548980.36,5129138.82,1066.05
548979.83,5129136.82,1066.28
548979.32,5129134.84,1066.37
548978.80,5129132.85,1066.45
548978.29,5129130.85,1066.48
548977.76,5129128.83,1066.61
548977.29,5129126.91,1066.24
548976.77,5129124.90,1066.27
548976.29,5129122.95,1065.93
548975.78,5129120.95,1065.77
548971.76,5129104.90,1063.95
548967.71,5129088.55,1061.38
548967.17,5129086.45,1061.24
548966.66,5129084.37,1060.90
548965.11,5129078.11,1059.87
548964.05,5129073.89,1059.32
548960.96,5129061.23,1056.50
548959.39,5129054.82,1055.09
548955.24,5129037.60,1050.32
548954.71,5129035.42,1049.83
548954.18,5129033.23,1049.23
548953.66,5129031.06,1048.56
548950.99,5129020.00,1045.61
548948.39,5129008.97,1041.43
548947.32,5129004.48,1040.05
548948.85,5129004.12,1040.18
548953.64,5129024.12,1046.97
548955.24,5129030.74,1048.89
548955.76,5129032.90,1049.60
548956.31,5129035.11,1050.10
548956.86,5129037.31,1050.44
548958.98,5129045.98,1052.61
548961.04,5129054.51,1055.20
548963.14,5129063.04,1057.01
548966.26,5129075.66,1059.64
548967.30,5129079.84,1060.36
548967.79,5129081.88,1061.08
548968.33,5129083.99,1061.10
548968.86,5129086.08,1061.38
548969.40,5129088.18,1061.46
548975.00,5129110.51,1064.69
548977.50,5129120.45,1065.87
548978.51,5129124.40,1066.19
548979.01,5129126.38,1066.35
548979.49,5129128.31,1066.61
548980.02,5129130.33,1066.50
548980.53,5129132.30,1066.49
548981.06,5129134.31,1066.39
548981.57,5129136.25,1066.37
548982.10,5129138.26,1066.14
548982.62,5129140.23,1065.99
548983.14,5129142.22,1065.80
548985.17,5129149.97,1065.54
548989.49,5129165.81,1061.61
548988.27,5129158.95,1064.58
548987.75,5129157.01,1064.96
548984.21,5129143.46,1066.06
548983.74,5129141.56,1065.85
548983.22,5129139.59,1066.03
548982.70,5129137.61,1066.20
548982.19,5129135.63,1066.35
548981.68,5129133.66,1066.42
548981.16,5129131.68,1066.52
548980.66,5129129.71,1066.50
548980.14,5129127.72,1066.55
548979.66,5129125.78,1066.28
548974.65,5129105.85,1064.61
548972.67,5129097.82,1063.15
548970.13,5129087.58,1061.55
548969.60,5129085.49,1061.44
548968.58,5129081.36,1060.76
548968.06,5129079.27,1060.43
548967.05,5129075.12,1059.53
548964.97,5129066.69,1058.04
548963.93,5129062.45,1057.20
548962.38,5129056.08,1055.75
548961.85,5129053.93,1055.37
548961.34,5129051.81,1054.70
548960.32,5129047.55,1053.36
548959.83,5129045.43,1052.54
548959.28,5129043.23,1052.27
548957.18,5129034.54,1049.96
548956.64,5129032.33,1049.42
548956.10,5129030.12,1049.06
548951.37,5129010.26,1042.51
548949.78,5129003.54,1040.26
548958.57,5129033.37,1049.83
548960.17,5129039.93,1051.65
548960.70,5129042.10,1052.10
548961.73,5129046.39,1053.60
548964.33,5129057.10,1056.52
548964.87,5129059.25,1056.85
548965.96,5129063.57,1057.31
548968.03,5129072.00,1059.19
548968.57,5129074.13,1059.44
548970.12,5129080.38,1060.64
548971.65,5129086.57,1061.97
548972.19,5129088.68,1062.02
548972.73,5129090.79,1062.12
548974.75,5129098.94,1063.58
548981.84,5129126.98,1066.58
548982.36,5129128.98,1066.55
548982.88,5129130.99,1066.50
548983.40,5129132.96,1066.44
548983.92,5129134.95,1066.34
548984.43,5129136.91,1066.30
548984.96,5129138.92,1066.07
548985.47,5129140.88,1065.99
548987.51,5129148.68,1065.66
548989.56,5129156.46,1064.92
548990.09,5129158.42,1064.61
548989.82,5129154.55,1065.48
548988.33,5129148.78,1065.66
548986.31,5129140.99,1066.02
548985.81,5129139.04,1066.03
548985.28,5129137.04,1066.30
548984.76,5129135.05,1066.39
548984.26,5129133.08,1066.43
548983.73,5129131.07,1066.55
548983.23,5129129.09,1066.56
548982.71,5129127.09,1066.62
548982.23,5129125.15,1066.34
548976.21,5129101.13,1063.91
548975.69,5129099.08,1063.72
548973.69,5129090.93,1062.24
548972.63,5129086.75,1061.98
548971.10,5129080.54,1060.89
548970.58,5129078.45,1060.56
548969.58,5129074.30,1059.53
548969.05,5129072.18,1059.28
548968.55,5129070.10,1058.68
548966.99,5129063.75,1057.49
548965.90,5129059.42,1057.11
548965.38,5129057.28,1056.65
548963.29,5129048.71,1054.58
548961.25,5129040.14,1051.84
548960.72,5129037.96,1051.39
548955.95,5129018.15,1045.90
548956.98,5129015.46,1045.25
548958.05,5129019.88,1046.66
548959.10,5129024.29,1048.14
548961.80,5129035.32,1050.78
548962.32,5129037.48,1051.40
548962.86,5129039.67,1051.86
548966.48,5129054.64,1056.33
548967.02,5129056.81,1056.68
548967.54,5129058.94,1057.09
548968.09,5129061.12,1057.31
548969.69,5129067.50,1058.30
548970.19,5129069.60,1058.91
548971.26,5129073.84,1059.39
548972.79,5129080.05,1060.81
548973.79,5129084.16,1061.78
548974.82,5129088.30,1062.48
548975.87,5129092.45,1062.85
548977.39,5129098.56,1063.85
548977.91,5129100.60,1064.02
548979.38,5129106.59,1065.36
548980.93,5129112.66,1065.67
548983.99,5129124.65,1066.39
548984.47,5129126.59,1066.72
548984.99,5129128.59,1066.63
548985.51,5129130.60,1066.59
548986.03,5129132.59,1066.49
548986.56,5129134.59,1066.37
548987.06,5129136.54,1066.32
548987.58,5129138.53,1066.22
548988.10,5129140.50,1066.07
548989.61,5129146.34,1065.97
548990.13,5129148.28,1065.78
548990.65,5129147.14,1065.79
548989.15,5129141.30,1065.96
548988.64,5129139.34,1066.08
548988.11,5129137.34,1066.29
548987.61,5129135.39,1066.29
548987.10,5129133.41,1066.42
548986.59,5129131.42,1066.48
548986.06,5129129.41,1066.61
548985.55,5129127.43,1066.66
548985.04,5129125.43,1066.70
548982.01,5129113.46,1066.04
548981.54,5129111.51,1065.55
548980.01,5129105.44,1065.08
548978.54,5129099.43,1063.96
548977.52,5129095.34,1063.50
548974.46,5129082.99,1061.65
548973.45,5129078.87,1060.75
548971.93,5129072.62,1059.46
548970.89,5129068.40,1058.64
548969.32,5129062.03,1057.65
548964.15,5129040.64,1052.13
548963.62,5129038.46,1051.63
548963.08,5129036.26,1051.28
548962.56,5129034.09,1050.59
548959.37,5129020.86,1047.18
548958.32,5129016.46,1045.70
548957.73,5129006.76,1042.74
548959.87,5129015.71,1045.57
548961.45,5129022.34,1047.91
548964.67,5129035.58,1051.21
548965.21,5129037.77,1051.66
548965.73,5129039.94,1052.37
548966.78,5129044.27,1053.54
548968.82,5129052.81,1056.37
548970.40,5129059.23,1057.67
548970.94,5129061.40,1057.98
548971.49,5129063.55,1058.11
548972.03,5129065.71,1058.32
548974.12,5129074.15,1059.93
548975.15,5129078.33,1060.73
548977.15,5129086.55,1062.78
548977.67,5129088.62,1063.02
548979.26,5129094.87,1063.52
548980.26,5129098.93,1064.28
548986.38,5129123.16,1066.46
548986.86,5129125.09,1066.78
548987.38,5129127.10,1066.74
548987.90,5129129.11,1066.63
548988.43,5129131.13,1066.51
548988.94,5129133.11,1066.47
548989.46,5129135.11,1066.36
548989.98,5129137.09,1066.28
548990.50,5129139.09,1066.12
548991.02,5129141.07,1065.92
548991.53,5129143.02,1065.93
548992.54,5129146.93,1065.77
548993.03,5129148.83,1065.80
548993.52,5129150.75,1065.82
548994.04,5129152.71,1065.56
549001.89,5129180.87,1054.93
549002.64,5129180.71,1054.94
548994.80,5129152.45,1065.66
548994.31,5129150.53,1065.69
548993.82,5129148.60,1065.67
548993.32,5129146.65,1065.74
548992.81,5129144.70,1065.82
548992.32,5129142.76,1065.82
548991.80,5129140.79,1065.96
548991.29,5129138.80,1066.10
548990.76,5129136.80,1066.31
548990.25,5129134.80,1066.41
548989.73,5129132.80,1066.52
548989.22,5129130.82,1066.54
548988.70,5129128.81,1066.68
548988.18,5129126.79,1066.77
548987.66,5129124.78,1066.83
548983.64,5129108.75,1065.47
548982.62,5129104.70,1065.06
548981.61,5129100.62,1064.60
548981.08,5129098.55,1064.47
548977.98,5129086.13,1063.17
548975.98,5129077.88,1061.20
548975.00,5129073.77,1059.83
548974.47,5129071.63,1059.61
548973.95,5129069.52,1059.22
548973.43,5129067.40,1058.86
548971.29,5129058.80,1057.69
548969.71,5129052.35,1056.51
548967.70,5129043.83,1053.54
548966.65,5129039.48,1052.41
548965.60,5129035.12,1051.18
548965.06,5129032.91,1050.70
548964.54,5129030.73,1050.05
548962.92,5129024.07,1048.55
548962.38,5129021.85,1048.02
548959.77,5129010.78,1044.11
548959.24,5129008.55,1043.35
548958.69,5129006.28,1042.81
548967.77,5129036.48,1052.02
548968.83,5129040.83,1053.07
548970.87,5129049.37,1055.82
548971.36,5129051.47,1056.72
548973.50,5129060.07,1058.09
548974.56,5129064.34,1058.77
548975.08,5129066.45,1059.13
548975.61,5129068.57,1059.51
548976.68,5129072.84,1059.90
548977.12,5129074.80,1061.07
548977.66,5129076.93,1061.19
548978.18,5129079.01,1061.55
548979.69,5129085.17,1062.91
548982.74,5129097.45,1064.85
548983.28,5129099.54,1064.73
548984.83,5129105.67,1065.24
548989.34,5129123.58,1066.97
548989.87,5129125.60,1066.84
548990.38,5129127.59,1066.80
548990.91,5129129.60,1066.68
548991.42,5129131.58,1066.58
548991.94,5129133.57,1066.51
548992.45,5129135.53,1066.46
548992.97,5129137.52,1066.29
548993.50,5129139.52,1066.04
548994.01,5129141.49,1065.91
548994.52,5129143.44,1065.79
548995.52,5129147.30,1065.69
548996.02,5129149.24,1065.58
548997.03,5129153.10,1065.35
548998.13,5129157.11,1064.14
549006.31,5129183.89,1053.19
549001.86,5129168.00,1060.30
549001.31,5129166.01,1061.08
548998.62,5129156.12,1064.11
548997.56,5129152.18,1065.07
548996.54,5129148.29,1065.54
548996.05,5129146.37,1065.57
548995.54,5129144.42,1065.80
548995.04,5129142.48,1065.90
548994.54,5129140.54,1065.98
548994.02,5129138.57,1066.18
548993.52,5129136.61,1066.31
548993.00,5129134.63,1066.51
548992.50,5129132.67,1066.54
548991.99,5129130.70,1066.56
548991.47,5129128.70,1066.74
548990.96,5129126.70,1066.85
548990.45,5129124.72,1066.88
548989.94,5129122.73,1066.95
548989.45,5129120.77,1066.73
548988.96,5129118.80,1066.53
548985.97,5129106.86,1065.42
548985.46,5129104.83,1065.30
548983.91,5129098.69,1065.00
548980.87,5129086.43,1063.40
548979.33,5129080.20,1062.66
548978.89,5129078.24,1061.57
548977.88,5129074.10,1060.56
548977.37,5129072.01,1060.17
548976.84,5129069.87,1060.03
548976.33,5129067.79,1059.48
548975.80,5129065.64,1059.29
548974.22,5129059.25,1058.27
548973.71,5129057.12,1057.80
548972.66,5129052.83,1057.00
548972.14,5129050.70,1056.49
548968.04,5129033.50,1051.23
548967.50,5129031.28,1050.81
548965.40,5129022.50,1048.27
548962.78,5129011.44,1044.67
548964.84,5129011.93,1045.24
548965.36,5129014.12,1046.06
548975.27,5129055.25,1057.84
548976.31,5129059.49,1058.68
548976.83,5129061.60,1059.12
548977.88,5129065.84,1059.80
548979.48,5129072.21,1060.53
548981.47,5129080.42,1062.70
548981.96,5129082.46,1063.16
548982.99,5129086.58,1063.78
548985.54,5129096.81,1065.19
548988.63,5129109.02,1065.99
548991.67,5129120.99,1066.74
548992.15,5129122.92,1067.07
548992.67,5129124.94,1067.00
548993.18,5129126.93,1066.92
548993.71,5129128.94,1066.76
548994.23,5129130.93,1066.57
548994.74,5129132.91,1066.55
548995.26,5129134.90,1066.39
548995.77,5129136.88,1066.31
548996.30,5129138.87,1066.03
548996.81,5129140.84,1065.91
548997.32,5129142.78,1065.74
548997.83,5129144.74,1065.61
548998.34,5129146.68,1065.47
548998.83,5129148.60,1065.47
548999.37,5129150.58,1065.02
548999.89,5129152.56,1064.68
549000.43,5129154.55,1064.15
549000.92,5129156.45,1064.14
549003.83,5129164.75,1061.17
549002.21,5129158.81,1063.10
549001.67,5129156.81,1063.75
549001.14,5129154.84,1064.22
549000.63,5129152.91,1064.50
549000.11,5129150.94,1064.90
548999.59,5129148.98,1065.21
548999.10,5129147.07,1065.32
548998.60,5129145.13,1065.46
548998.09,5129143.17,1065.65
548997.57,5129141.20,1065.86
548997.07,5129139.24,1065.99
548996.55,5129137.26,1066.20
548996.05,5129135.30,1066.32
548995.54,5129133.34,1066.42
548995.03,5129131.36,1066.55
548994.52,5129129.38,1066.63
548994.00,5129127.37,1066.85
548993.48,5129125.36,1066.97
548992.97,5129123.37,1067.04
548992.49,5129121.43,1066.80
548989.95,5129111.41,1066.59
548986.42,5129097.28,1065.36
548985.93,5129095.28,1064.95
548985.44,5129093.27,1064.48
548982.87,5129082.95,1063.45
548981.41,5129076.84,1061.72
548978.84,5129066.36,1059.97
548977.78,5129062.09,1059.51
548977.28,5129060.00,1058.88
548976.22,5129055.71,1058.25
548972.15,5129038.67,1053.38
548971.64,5129036.52,1052.67
548970.61,5129032.19,1051.39
548969.57,5129027.84,1050.09
548969.04,5129025.64,1049.51
548968.49,5129023.40,1049.23
548970.87,5129024.74,1049.71
548973.48,5129035.59,1052.88
548980.16,5129063.26,1060.33
548983.31,5129075.90,1062.07
548984.77,5129081.99,1063.91
548985.81,5129086.13,1064.40
548987.39,5129092.36,1064.73
548995.00,5129122.53,1067.16
548995.52,5129124.53,1067.14
548996.03,5129126.51,1067.05
548996.56,5129128.52,1066.87
548997.07,5129130.51,1066.80
548997.60,5129132.52,1066.62
548998.10,5129134.48,1066.56
548998.61,5129136.44,1066.57
548999.16,5129138.47,1065.99
549000.17,5129142.37,1065.80
549000.70,5129144.36,1065.53
549001.21,5129146.32,1065.30
549001.72,5129148.27,1065.17
549002.22,5129150.18,1065.05
549002.76,5129152.18,1064.59
549003.27,5129154.12,1064.26
549003.78,5129156.04,1064.06
549004.92,5129160.12,1062.37
549005.35,5129159.45,1062.63
549004.27,5129155.46,1063.90
549003.75,5129153.52,1064.24
549003.23,5129151.56,1064.63
549002.71,5129149.60,1065.00
549002.22,5129147.68,1065.11
549001.70,5129145.72,1065.42
549001.21,5129143.79,1065.49
548999.64,5129137.83,1066.45
548999.11,5129135.84,1066.72
548998.64,5129133.93,1066.52
548998.14,5129131.96,1066.54
548997.61,5129129.95,1066.84
548997.10,5129127.98,1066.91
548996.58,5129125.97,1067.09
548996.06,5129123.96,1067.21
548995.56,5129121.98,1067.20
548994.56,5129118.02,1067.00
548991.00,5129103.92,1066.42
548990.49,5129101.90,1066.26
548984.36,5129077.23,1063.55
548983.94,5129075.30,1062.23
548979.80,5129058.41,1059.34
548978.24,5129052.01,1058.01
548977.22,5129047.75,1056.87
548974.18,5129034.92,1052.71
548972.09,5129026.19,1050.22
548971.56,5129023.99,1049.65
548966.78,5129004.00,1043.94
548970.11,5129009.25,1045.51
548974.37,5129026.93,1050.54
548974.89,5129029.11,1051.28
548975.41,5129031.28,1051.88
548975.91,5129033.43,1052.72
548977.96,5129042.02,1055.49
548980.00,5129050.53,1058.12
548982.09,5129059.05,1059.86
548982.59,5129061.13,1060.41
548983.10,5129063.23,1061.00
548984.16,5129067.49,1061.47
548986.23,5129075.86,1062.92
548989.24,5129088.16,1065.54
548989.81,5129090.31,1065.15
548994.39,5129108.58,1067.05
548995.37,5129112.55,1067.71
548995.90,5129114.57,1067.62
548997.47,5129120.65,1067.35
548997.98,5129122.64,1067.36
548998.50,5129124.66,1067.23
548999.02,5129126.66,1067.09
548999.53,5129128.65,1067.08
549000.06,5129130.65,1066.85
549000.57,5129132.64,1066.78
549001.09,5129134.62,1066.62
549001.58,5129136.56,1066.73
549003.19,5129142.57,1065.56
549003.70,5129144.54,1065.42
549004.21,5129146.48,1065.25
549004.71,5129148.43,1065.12
549005.19,5129150.30,1065.20
549005.75,5129152.34,1064.49
549006.29,5129154.32,1063.92
549007.28,5129158.12,1063.65
549014.14,5129180.20,1053.03
549009.61,5129164.11,1060.83
549007.46,5129156.19,1063.32
549006.90,5129154.16,1064.13
549006.38,5129152.20,1064.53
549005.36,5129148.31,1065.07
549004.86,5129146.37,1065.21
549004.36,5129144.44,1065.36
549003.86,5129142.50,1065.47
549002.26,5129136.48,1066.73
549001.26,5129132.58,1066.74
549000.75,5129130.58,1066.90
549000.23,5129128.58,1067.14
548999.73,5129126.61,1067.12
548999.21,5129124.61,1067.28
548998.69,5129122.60,1067.42
548998.19,5129120.62,1067.39
548996.62,5129114.56,1067.74
548995.15,5129108.61,1067.05
548994.14,5129104.59,1066.76
548990.59,5129090.33,1065.39
548989.52,5129086.13,1065.38
548987.03,5129075.88,1063.24
548986.02,5129071.72,1062.40
548985.50,5129069.61,1062.11
548984.98,5129067.51,1061.73
548983.93,5129063.26,1061.24
548983.44,5129061.20,1060.48
548981.88,5129054.80,1059.37
548981.38,5129052.70,1058.70
548980.86,5129050.56,1058.28
548978.83,5129042.04,1055.76
548976.80,5129033.45,1052.93
548976.30,5129031.31,1051.99
548975.77,5129029.11,1051.53
548975.28,5129026.97,1050.48
548973.72,5129020.40,1048.41
548972.12,5129013.73,1046.72
548971.58,5129011.50,1046.12
548976.13,5129021.82,1049.27
548977.18,5129026.18,1050.61
548978.20,5129030.50,1052.12
548982.27,5129047.59,1057.81
548982.78,5129049.73,1058.43
548984.34,5129056.12,1059.72
548985.86,5129062.41,1061.41
548987.98,5129070.89,1062.35
548988.95,5129074.97,1063.71
548989.43,5129076.99,1064.32
548989.96,5129079.08,1064.56
548990.45,5129081.11,1065.10
548990.93,5129083.13,1065.74
548991.99,5129087.32,1065.91
548992.53,5129089.41,1065.85
549000.22,5129119.81,1067.62
549000.73,5129121.81,1067.52
549001.25,5129123.83,1067.44
549001.77,5129125.81,1067.36
549002.28,5129127.81,1067.31
549002.81,5129129.82,1067.05
549004.83,5129137.66,1066.87
549006.47,5129143.75,1065.37
549006.97,5129145.67,1065.29
549007.48,5129147.63,1065.11
549007.96,5129149.52,1065.15
549009.01,5129153.45,1064.41
549010.63,5129156.98,1063.52
549010.08,5129154.98,1064.27
549009.59,5129153.07,1064.47
549008.09,5129147.32,1065.09
549007.59,5129145.39,1065.29
549007.10,5129143.48,1065.35
549003.49,5129129.64,1067.10
549002.98,5129127.65,1067.32
549002.47,5129125.66,1067.42
549001.95,5129123.67,1067.53
549001.44,5129121.68,1067.58
549000.93,5129119.68,1067.68
549000.41,5129117.67,1067.86
548998.35,5129109.61,1068.08
548991.75,5129083.16,1065.98
548991.28,5129081.16,1065.30
548990.80,5129079.15,1064.70
548989.79,5129075.03,1063.94
548987.75,5129066.68,1062.44
548985.19,5129056.14,1060.29
548983.67,5129049.79,1058.69
548982.15,5129043.41,1056.82
548977.59,5129024.06,1050.37
548973.88,5129008.54,1046.08
548979.17,5129022.07,1049.73
548979.70,5129024.27,1050.42
548980.18,5129026.40,1051.45
548982.21,5129034.98,1054.69
548982.73,5129037.15,1055.27
548983.74,5129041.42,1056.66
548984.24,5129043.52,1057.47
548984.76,5129045.68,1057.93
548985.79,5129049.92,1059.10
548988.37,5129060.52,1061.42
548990.45,5129068.96,1062.80
548990.98,5129071.07,1063.07
548998.62,5129101.83,1067.32
549000.10,5129107.81,1068.11
549000.59,5129109.78,1068.41
549001.65,5129113.86,1068.18
549002.19,5129115.92,1067.89
549002.69,5129117.90,1067.97
549003.22,5129119.95,1067.79
549003.73,5129121.92,1067.78
549004.25,5129123.92,1067.69
549004.77,5129125.92,1067.49
549005.28,5129127.92,1067.47
549005.80,5129129.91,1067.24
549009.47,5129143.83,1065.33
549009.96,5129145.73,1065.33
549010.46,5129147.66,1065.23
549010.95,5129149.57,1065.12
549011.99,5129153.47,1064.42
549012.47,5129155.37,1064.36
549013.17,5129155.25,1064.23
549012.67,5129153.33,1064.51
549012.15,5129151.36,1064.95
549011.66,5129149.45,1065.10
549011.17,5129147.55,1065.16
549010.68,5129145.63,1065.27
549010.19,5129143.71,1065.31
549009.69,5129141.76,1065.50
549009.14,5129139.73,1066.05
549008.63,5129137.76,1066.29
549006.04,5129127.82,1067.48
549005.53,5129125.83,1067.58
549005.02,5129123.83,1067.69
549004.50,5129121.83,1067.84
549004.00,5129119.85,1067.81
549003.48,5129117.83,1068.00
549002.98,5129115.83,1067.94
549001.38,5129109.67,1068.64
549000.89,5129107.69,1068.35
548999.44,5129101.75,1067.37
548991.85,5129070.97,1063.31
548989.73,5129062.46,1062.61
548989.27,5129060.43,1061.68
548987.73,5129054.07,1060.43
548984.69,5129041.33,1056.80
548984.19,5129039.20,1056.15
548983.67,5129037.04,1055.53
548983.16,5129034.89,1054.95
548981.16,5129026.33,1051.72
548980.18,5129022.04,1049.76
548979.66,5129019.84,1049.08
548978.05,5129013.18,1047.59
548977.51,5129010.94,1047.11
548979.36,5129010.37,1047.23
548980.43,5129014.80,1048.32
548981.52,5129019.25,1049.21
548985.04,5129034.28,1055.10
548985.55,5129036.44,1055.77
548986.08,5129038.59,1056.26
548991.15,5129059.74,1062.23
548991.67,5129061.85,1062.63
548992.19,5129063.96,1062.95
548994.24,5129072.31,1064.51
548995.26,5129076.46,1065.21
548997.29,5129084.68,1066.60
548997.79,5129086.72,1066.97
548998.34,5129088.83,1066.79
548998.88,5129090.93,1066.73
549001.42,5129101.08,1067.71
549006.04,5129119.22,1068.00
549006.54,5129121.20,1067.98
549007.06,5129123.21,1067.90
549007.58,5129125.20,1067.75
549008.08,5129127.18,1067.78
549008.60,5129129.17,1067.53
549010.17,5129135.14,1066.77
549010.68,5129137.11,1066.54
549012.78,5129145.03,1065.25
549013.27,5129146.96,1065.18
549013.76,5129148.85,1065.12
549014.25,5129150.76,1065.05
549014.77,5129152.70,1064.67
549015.29,5129154.66,1064.30
549019.30,5129166.40,1059.28
549018.75,5129164.42,1060.05
549015.45,5129152.38,1064.78
549014.95,5129150.46,1065.02
549014.47,5129148.56,1065.09
549013.99,5129146.66,1065.13
549013.50,5129144.75,1065.22
549011.42,5129136.83,1066.59
549010.89,5129134.82,1066.99
549010.37,5129132.84,1067.26
549009.86,5129130.86,1067.46
549009.35,5129128.87,1067.61
549008.84,5129126.88,1067.77
549008.34,5129124.91,1067.81
549007.82,5129122.91,1067.93
549007.31,5129120.91,1068.08
549006.81,5129118.92,1068.09
549004.75,5129110.86,1068.32
549004.21,5129108.78,1068.69
548999.18,5129088.53,1066.84
548998.14,5129084.36,1066.68
548995.11,5129071.96,1064.62
548994.65,5129069.95,1063.69
548993.57,5129065.66,1063.57
548986.98,5129038.12,1056.56
548986.48,5129035.98,1055.82
548985.47,5129031.68,1054.39
548984.98,5129029.55,1053.48
548978.69,5129003.08,1045.85
548985.04,5129021.26,1050.63
548986.55,5129027.75,1053.18
548988.04,5129034.14,1055.79
548991.63,5129049.12,1060.06
548993.15,5129055.44,1061.79
548993.68,5129057.60,1062.02
548996.76,5129070.21,1064.46
548997.27,5129072.28,1064.82
548997.78,5129074.36,1065.24
548999.79,5129082.60,1066.89
549000.32,5129084.69,1066.90
549000.86,5129086.79,1066.95
549001.36,5129088.82,1067.21
549002.44,5129093.02,1067.09
549004.95,5129103.13,1068.26
549007.01,5129111.23,1068.40
549009.07,5129119.28,1068.22
549009.58,5129121.28,1068.14
549010.10,5129123.29,1068.05
549010.61,5129125.27,1067.99
549011.11,5129127.25,1068.04
549011.65,5129129.27,1067.66
549012.64,5129133.17,1067.63
549013.19,5129135.21,1067.18
549015.84,5129145.19,1065.19
549016.34,5129147.13,1065.05
549016.82,5129149.00,1065.07
549017.32,5129150.93,1064.91
549017.83,5129152.87,1064.57
549018.33,5129154.79,1064.41
549018.84,5129156.71,1064.05
549021.74,5129166.98,1058.81
549019.70,5129156.69,1064.06
549018.70,5129152.84,1064.70
549018.20,5129150.92,1064.94
549017.72,5129149.03,1064.95
549017.23,5129147.14,1065.04
549016.71,5129145.16,1065.45
549016.24,5129143.27,1065.35
549014.11,5129135.24,1067.19
549013.59,5129133.25,1067.50
549012.57,5129129.30,1067.81
549012.06,5129127.30,1068.04
549011.56,5129125.33,1068.00
549011.06,5129123.35,1068.04
549010.54,5129121.34,1068.25
549010.03,5129119.35,1068.29
549009.52,5129117.34,1068.43
549008.49,5129113.30,1068.55
549007.98,5129111.30,1068.55
549007.45,5129109.24,1068.85
549001.89,5129086.90,1067.09
549001.37,5129084.81,1066.98
549000.82,5129082.68,1067.21
549000.33,5129080.64,1066.72
548998.83,5129074.48,1065.54
548995.84,5129062.02,1062.63
548994.78,5129057.73,1062.17
548992.23,5129047.11,1059.73
548990.70,5129040.70,1058.01
548988.67,5129032.10,1055.36
548986.19,5129021.37,1050.98
548985.32,5129009.60,1048.39
548985.85,5129011.81,1048.95
548993.54,5129044.24,1059.42
548994.06,5129046.36,1059.94
548995.06,5129050.58,1061.21
548996.11,5129054.85,1061.97
548998.74,5129065.49,1063.39
549003.24,5129084.00,1067.44
549004.30,5129088.16,1067.53
549006.86,5129098.39,1068.32
549010.43,5129112.52,1068.84
549010.95,5129114.55,1068.75
549011.46,5129116.55,1068.71
549012.00,5129118.60,1068.41
549012.52,5129120.60,1068.30
549013.02,5129122.59,1068.30
549013.54,5129124.58,1068.16
549014.03,5129126.54,1068.27
549014.55,5129128.53,1068.02
549015.55,5129132.44,1067.97
549016.12,5129134.52,1067.31
549016.64,5129136.50,1067.02
549018.79,5129144.53,1065.09
549019.28,5129146.46,1065.00
549019.78,5129148.37,1064.86
549020.26,5129150.26,1064.87
549020.74,5129152.15,1064.79
549021.24,5129154.05,1064.65
549021.76,5129156.00,1064.20
549023.00,5129157.77,1063.94
549022.48,5129155.83,1064.42
549021.99,5129153.94,1064.67
549021.52,5129152.07,1064.73
549021.03,5129150.17,1064.92
549020.56,5129148.30,1064.87
549020.08,5129146.40,1064.95
549019.59,5129144.48,1065.06
549017.46,5129136.49,1067.05
549016.95,5129134.51,1067.35
549016.40,5129132.47,1067.89
549015.41,5129128.57,1068.07
549014.89,5129126.57,1068.36
549014.41,5129124.63,1068.23
549013.90,5129122.65,1068.32
549013.40,5129120.66,1068.41
549012.89,5129118.68,1068.49
549012.37,5129116.65,1068.75
549011.85,5129114.62,1068.94
549011.34,5129112.62,1068.93
549008.31,5129100.56,1068.71
549004.76,5129086.28,1067.68
549004.25,5129084.21,1067.53
549003.22,5129080.07,1067.25
549002.28,5129076.06,1065.85
549000.77,5129069.83,1064.88
548997.20,5129055.12,1062.18
548996.67,5129052.97,1061.96
548996.16,5129050.85,1061.44
548995.64,5129048.70,1061.13
548995.15,5129046.61,1060.33
548992.63,5129035.96,1057.25
548991.10,5129029.50,1055.36
548989.15,5129020.94,1051.51
548987.04,5129012.11,1049.21
548986.49,5129009.85,1048.93
548985.96,5129007.62,1048.35
548988.42,5129009.95,1049.19
548990.03,5129016.60,1050.81
548990.54,5129018.79,1051.62
548991.08,5129021.01,1051.96
548991.59,5129023.18,1052.79
548992.08,5129025.29,1053.83
548993.07,5129029.58,1055.55
548993.59,5129031.75,1056.17
548996.13,5129042.41,1059.52
548996.65,5129044.57,1060.01
548997.14,5129046.65,1060.75
548997.64,5129048.76,1061.47
548999.22,5129055.18,1062.42
549002.31,5129067.82,1064.71
549002.80,5129069.87,1065.43
549004.30,5129076.05,1066.70
549006.34,5129084.29,1067.85
549006.89,5129086.42,1067.69
549010.91,5129102.61,1069.56
549012.49,5129108.74,1069.12
549013.01,5129110.76,1069.15
549013.50,5129112.73,1069.31
549015.07,5129118.81,1068.82
549015.60,5129120.83,1068.58
549016.11,5129122.83,1068.48
549016.62,5129124.80,1068.40
549017.09,5129126.71,1068.69
549017.63,5129128.74,1068.21
549018.12,5129130.68,1068.31
549018.67,5129132.72,1067.77
549019.20,5129134.74,1067.38
549019.73,5129136.73,1066.97
549020.21,5129138.64,1067.06
549021.37,5129142.81,1065.20
549021.87,5129144.72,1065.06
549022.36,5129146.64,1064.94
549022.85,5129148.54,1064.87
549023.34,5129150.44,1064.80
549023.81,5129152.31,1064.76
549024.30,5129154.20,1064.68
549024.79,5129156.09,1064.44
549025.30,5129158.01,1064.15
549026.11,5129158.16,1064.10
549025.62,5129156.27,1064.38
549025.13,5129154.37,1064.63
549024.65,5129152.48,1064.76
549024.17,5129150.59,1064.81
549023.69,5129148.70,1064.87
549023.21,5129146.81,1064.91
549022.72,5129144.90,1065.03
549021.12,5129138.87,1066.62
549020.58,5129136.85,1067.15
549019.56,5129132.90,1067.66
549019.00,5129130.84,1068.34
549018.51,5129128.89,1068.36
549017.99,5129126.89,1068.69
549017.52,5129124.97,1068.44
549017.01,5129122.97,1068.54
549016.51,5129120.99,1068.61
549014.43,5129112.89,1069.41
549013.94,5129110.91,1069.21
549013.43,5129108.89,1069.26
549011.85,5129102.73,1069.75
549007.88,5129086.56,1067.78
549007.34,5129084.45,1067.87
549003.84,5129070.02,1065.37
548999.23,5129051.04,1062.08
548996.70,5129040.39,1059.29
548994.19,5129029.70,1055.77
548993.69,5129027.55,1054.95
548992.21,5129021.12,1052.29
548991.69,5129018.92,1051.69
548991.17,5129016.73,1051.05
548994.34,5129022.06,1052.99
548995.33,5129026.33,1054.84
548999.88,5129045.54,1060.98
549002.48,5129056.18,1063.08
549003.03,5129058.34,1063.05
549004.55,5129064.61,1064.44
549005.55,5129068.75,1065.40
549007.01,5129074.85,1067.08
549007.53,5129076.94,1067.32
549009.08,5129083.16,1067.79
549014.13,5129103.44,1069.70
549014.66,5129105.49,1069.60
549015.19,5129107.53,1069.36
549015.70,5129109.55,1069.40
549016.21,5129111.54,1069.43
549017.17,5129115.43,1069.92
549018.80,5129121.60,1068.70
549019.31,5129123.57,1068.65
549019.81,5129125.55,1068.61
549020.30,5129127.47,1068.68
549020.81,5129129.46,1068.48
549021.31,5129131.41,1068.40
549021.87,5129133.46,1067.80
549022.38,5129135.43,1067.51
549025.07,5129145.47,1064.96
549025.55,5129147.34,1064.92
549026.04,5129149.24,1064.82
549026.52,5129151.11,1064.78
549027.00,5129153.00,1064.72
549027.47,5129154.86,1064.68
549028.52,5129158.75,1063.66
549029.28,5129158.54,1063.72
549028.73,5129156.53,1064.51
549027.78,5129152.78,1064.73
549027.30,5129150.90,1064.81
549026.82,5129149.00,1064.90
549026.34,5129147.11,1064.98
549025.86,5129145.23,1064.99
549024.22,5129139.12,1066.97
549021.63,5129129.17,1068.59
549021.11,5129127.17,1068.83
549020.63,5129125.23,1068.71
549020.13,5129123.27,1068.73
549019.63,5129121.28,1068.81
549018.03,5129115.14,1069.87
549016.04,5129107.18,1069.55
549011.50,5129088.91,1068.47
549009.96,5129082.72,1067.97
549008.91,5129078.54,1067.88
549008.43,5129076.51,1067.33
549007.92,5129074.44,1067.11
549006.44,5129068.25,1065.74
549001.36,5129047.18,1061.50
549000.84,5129045.04,1061.13
548995.85,5129023.72,1053.92
548993.58,5129006.26,1049.18
548994.11,5129008.48,1049.85
548994.66,5129010.72,1050.17
548995.18,5129012.92,1050.93
548995.70,5129015.11,1051.58
548996.75,5129019.50,1052.80
549001.29,5129038.79,1059.47
549008.42,5129068.30,1066.10
549009.41,5129072.41,1067.11
549010.42,5129076.52,1067.80
549010.93,5129078.58,1068.02
549011.45,5129080.67,1068.12
549014.99,5129094.92,1069.63
549019.08,5129111.10,1069.82
549021.69,5129121.20,1068.95
549022.20,5129123.17,1068.84
549022.69,5129125.13,1068.86
549023.16,5129127.03,1069.07
549023.69,5129129.04,1068.79
549024.21,5129131.03,1068.48
549028.90,5129148.81,1065.12
549029.39,5129150.71,1064.90
549029.89,5129152.62,1064.72
549030.37,5129154.50,1064.56
549031.89,5129160.26,1063.43
549033.00,5129161.17,1063.04
549031.94,5129157.22,1064.40
549031.46,5129155.35,1064.53
549030.97,5129153.46,1064.69
549030.49,5129151.57,1064.83
549030.00,5129149.67,1065.01
549025.89,5129133.92,1067.87
549025.36,5129131.89,1068.30
549024.32,5129127.89,1068.89
549023.82,5129125.92,1069.01
549023.34,5129123.99,1068.87
549022.84,5129122.01,1068.96
549022.34,5129120.02,1068.98
549017.65,5129101.71,1070.48
549014.15,5129087.52,1069.15
549013.13,5129083.40,1068.88
549011.12,5129075.17,1067.68
549010.59,5129073.06,1067.65
549010.11,5129071.01,1067.13
549009.14,5129066.91,1066.00
549007.15,5129058.60,1064.02
549004.06,5129045.84,1061.72
549003.54,5129043.69,1061.34
549001.52,5129035.15,1058.98
549000.53,5129030.90,1057.36
548997.56,5129018.04,1052.33
548996.00,5129011.42,1050.50
548995.47,5129009.21,1049.95
548994.93,5129006.98,1049.44
548997.26,5129008.58,1050.16
548998.33,5129013.03,1051.20
548998.81,5129015.17,1052.35
548999.38,5129017.45,1052.42
549002.38,5129030.33,1057.52
549009.52,5129060.10,1065.01
549011.03,5129066.34,1066.31
549011.52,5129068.40,1066.89
549012.01,5129070.44,1067.37
549012.51,5129072.50,1067.85
549013.01,5129074.56,1068.19
549013.51,5129076.62,1068.56
549016.08,5129086.94,1069.43
549017.14,5129091.10,1069.30
549018.59,5129097.09,1070.50
549020.10,5129103.12,1070.79
549021.72,5129109.33,1069.87
549023.76,5129117.34,1069.63
549024.30,5129119.38,1069.22
549024.81,5129121.37,1069.15
549025.31,5129123.34,1069.09
549025.81,5129125.31,1069.08
549026.29,5129127.23,1069.19
549026.82,5129129.24,1068.85
549027.33,5129131.21,1068.67
549028.41,5129135.26,1067.60
549028.91,5129137.22,1067.42
549030.55,5129143.30,1065.50
549031.56,5129147.16,1065.04
549032.03,5129149.03,1065.06
549032.52,5129150.94,1064.84
549033.01,5129152.83,1064.74
549033.50,5129154.72,1064.49
549034.51,5129158.56,1063.73
549034.26,5129154.49,1064.68
549033.77,5129152.59,1064.85
549033.30,5129150.72,1064.88
549032.81,5129148.80,1065.08
549032.32,5129146.88,1065.23
549031.32,5129143.02,1065.67
549029.18,5129134.93,1067.91
549028.66,5129132.94,1068.19
549028.10,5129130.86,1068.92
549027.62,5129128.93,1068.85
549027.09,5129126.91,1069.22
549026.61,5129124.96,1069.15
549026.11,5129122.98,1069.20
549025.61,5129121.01,1069.22
549025.11,5129119.01,1069.31
549023.03,5129110.91,1070.04
549022.53,5129108.91,1069.98
549017.95,5129090.58,1069.62
549016.91,5129086.43,1069.58
549016.40,5129084.36,1069.45
549015.40,5129080.26,1068.97
549014.38,5129076.12,1068.53
549012.39,5129067.86,1066.94
549010.41,5129059.55,1064.91
549007.86,5129048.96,1062.88
549005.33,5129038.33,1060.16
549004.81,5129036.16,1059.80
549003.32,5129029.77,1057.60
549002.83,5129027.64,1056.73
549001.35,5129021.21,1054.24
549000.35,5129016.89,1052.56
548999.81,5129014.65,1052.17
549002.05,5129015.27,1052.35
549007.59,5129038.90,1060.61
549009.59,5129047.33,1063.24
549010.64,5129051.61,1063.86
549012.66,5129060.00,1065.73
549018.21,5129082.72,1069.47
549019.72,5129088.82,1070.23
549020.25,5129090.90,1070.07
549023.78,5129105.01,1070.98
549027.44,5129119.18,1069.57
549027.95,5129121.17,1069.46
549028.45,5129123.15,1069.33
549028.96,5129125.13,1069.24
549029.43,5129127.03,1069.38
549029.96,5129129.04,1069.05
549030.45,5129130.97,1068.99
549031.01,5129133.03,1068.34
549038.47,5129158.85,1064.13
549035.05,5129145.52,1065.67
549030.89,5129129.59,1068.87
549030.35,5129127.56,1069.39
549029.86,5129125.61,1069.33
549029.36,5129123.64,1069.44
549028.86,5129121.65,1069.51
549028.35,5129119.65,1069.70
549026.79,5129113.58,1070.44
549021.69,5129093.29,1070.65
549021.24,5129091.35,1069.97
549020.71,5129089.25,1070.13
549018.69,5129081.04,1069.44
549018.15,5129078.93,1069.58
549012.66,5129056.13,1065.30
549011.66,5129051.94,1064.27
549010.66,5129047.73,1063.15
549005.64,5129026.42,1057.02
549002.14,5129011.30,1051.56
549002.40,5129003.67,1050.38
549005.59,5129016.98,1053.78
549006.11,5129019.16,1054.41
549006.60,5129021.32,1055.37
549013.16,5129049.06,1064.07
549014.72,5129055.44,1065.19
549015.21,5129057.52,1065.74
549019.71,5129076.14,1069.72
549021.79,5129084.45,1070.19
549023.33,5129090.60,1070.46
549023.82,5129092.62,1070.75
549029.47,5129114.89,1070.47
549030.01,5129116.95,1070.08
549030.51,5129118.92,1070.05
549031.04,5129120.95,1069.80
549031.55,5129122.93,1069.65
549032.05,5129124.91,1069.57
549032.55,5129126.86,1069.50
549033.07,5129128.87,1069.18
549033.59,5129130.86,1068.87
549036.70,5129142.72,1066.87
549039.23,5129152.41,1065.27
549035.23,5129134.21,1068.29
549034.19,5129130.20,1069.06
549033.65,5129128.17,1069.53
549033.17,5129126.22,1069.51
549032.66,5129124.23,1069.64
549032.16,5129122.27,1069.71
549031.64,5129120.25,1069.98
549031.13,5129118.24,1070.16
549030.62,5129116.24,1070.26
549030.10,5129114.20,1070.51
549029.10,5129110.22,1070.48
549027.46,5129103.95,1071.82
549022.45,5129083.64,1070.34
549019.90,5129073.29,1069.49
549017.42,5129062.95,1067.41
549016.90,5129060.84,1067.16
549014.93,5129052.51,1064.94
549013.89,5129048.24,1064.34
549012.39,5129041.89,1062.65
549010.88,5129035.51,1060.88
549008.90,5129026.99,1057.95
549005.89,5129014.04,1053.35
549005.49,5129003.35,1050.93
549006.03,5129005.58,1051.39
549006.57,5129007.82,1051.95
549011.18,5129027.40,1058.42
549014.72,5129042.35,1062.97
549015.22,5129044.45,1063.59
549016.75,5129050.80,1065.15
549017.28,5129052.95,1065.26
549019.26,5129061.25,1067.54
549020.27,5129065.40,1068.43
549022.79,5129075.73,1070.16
549023.78,5129079.81,1070.89
549024.30,5129081.87,1070.96
549025.36,5129086.03,1070.88
549026.37,5129090.11,1071.19
549029.37,5129102.19,1072.16
549033.07,5129116.47,1070.58
549033.57,5129118.45,1070.49
549034.10,5129120.47,1070.26
549034.63,5129122.49,1069.90
549035.13,5129124.47,1069.86
549035.63,5129126.42,1069.73
549036.12,5129128.36,1069.78
549036.65,5129130.37,1069.36
549039.73,5129142.19,1067.53
549040.73,5129146.04,1067.10
549042.34,5129152.02,1065.19
549041.51,5129146.25,1066.84
549036.91,5129128.50,1069.80
549036.42,5129126.56,1069.77
549035.92,5129124.59,1069.88
549035.42,5129122.61,1069.98
549034.90,5129120.59,1070.31
549034.38,5129118.57,1070.55
549033.88,5129116.58,1070.63
549033.36,5129114.57,1070.77
549030.75,5129104.37,1071.90
549026.21,5129086.11,1071.07
549025.18,5129081.97,1070.90
549023.67,5129075.80,1070.23
549021.15,5129065.44,1068.70
549020.15,5129061.28,1067.90
549017.17,5129048.76,1064.76
549016.17,5129044.55,1063.68
549013.15,5129031.78,1060.26
549010.19,5129018.99,1055.38
549007.60,5129008.02,1052.28
549007.06,5129005.79,1051.90
549006.55,5129003.59,1051.12
549011.17,5129013.32,1054.24
549012.21,5129017.68,1055.50
549012.72,5129019.86,1056.17
549013.22,5129022.00,1056.95
549013.72,5129024.15,1057.80
549016.71,5129036.89,1062.25
549018.23,5129043.24,1063.85
549019.73,5129049.54,1065.65
549020.24,5129051.63,1066.08
549021.75,5129057.89,1067.48
549022.23,5129059.93,1068.08
549022.76,5129062.05,1068.27
549026.78,5129078.51,1070.93
549029.32,5129088.71,1071.57
549035.45,5129112.88,1071.37
549035.97,5129114.90,1071.17
549036.47,5129116.87,1071.07
549036.99,5129118.88,1070.86
549037.52,5129120.89,1070.47
549038.04,5129122.91,1070.18
549038.53,5129124.84,1070.11
549039.04,5129126.79,1069.98
549039.52,5129128.72,1069.97
549040.07,5129130.76,1069.41
549040.57,5129132.69,1069.26
549042.03,5129138.43,1069.07
549042.56,5129140.42,1068.48
549049.28,5129165.66,1061.87
549045.86,5129150.02,1066.07
549043.77,5129142.12,1068.27
549043.23,5129140.12,1068.89
549042.70,5129138.12,1069.45
549041.79,5129134.40,1069.06
549041.29,5129132.45,1069.25
549040.78,5129130.49,1069.55
549040.25,5129128.48,1070.01
549039.76,5129126.53,1070.10
549039.27,5129124.57,1070.16
549038.77,5129122.60,1070.29
549038.25,5129120.60,1070.56
549037.72,5129118.56,1071.05
549037.21,5129116.58,1071.16
549036.71,5129114.59,1071.27
549028.08,5129080.16,1071.11
549027.56,5129078.09,1071.12
549027.05,5129076.02,1071.00
549025.54,5129069.85,1070.24
549024.52,5129065.69,1069.73
549024.08,5129063.71,1068.78
549023.58,5129061.63,1068.42
549023.06,5129059.53,1068.20
549022.57,5129057.48,1067.67
549021.59,5129053.34,1066.60
549021.10,5129051.26,1066.06
549017.60,5129036.53,1062.27
549014.63,5129023.81,1057.96
549014.14,5129021.67,1057.19
549013.14,5129017.38,1055.71
549012.12,5129013.04,1054.36
549011.08,5129008.65,1053.19
549012.96,5129006.98,1053.31
549014.02,5129011.39,1054.50
549014.53,5129013.57,1055.18
549015.04,5129015.75,1055.95
549015.55,5129017.91,1056.63
549016.09,5129020.13,1057.05
549021.11,5129041.41,1064.11
549025.13,5129058.15,1068.26
549030.66,5129080.78,1071.97
549031.17,5129082.83,1072.16
549031.69,5129084.89,1072.16
549033.18,5129090.93,1072.84
549033.68,5129092.93,1073.05
549036.79,5129105.13,1072.59
549037.29,5129107.13,1072.61
549038.88,5129113.22,1071.80
549039.39,5129115.23,1071.64
549040.42,5129119.22,1071.26
549040.96,5129121.25,1070.80
549041.49,5129123.27,1070.48
549041.99,5129125.23,1070.31
549042.49,5129127.18,1070.28
549042.97,5129129.09,1070.27
549043.48,5129131.06,1070.01
549043.97,5129132.98,1069.94
549044.48,5129134.95,1069.71
549044.99,5129136.89,1069.40
549045.53,5129138.90,1068.88
549046.02,5129140.80,1068.73
549046.53,5129142.76,1068.42
549047.04,5129144.70,1068.03
549049.13,5129152.54,1065.93
549050.64,5129158.27,1064.81
549051.13,5129160.15,1064.46
549051.61,5129162.00,1064.34
549046.46,5129139.29,1069.31
549045.99,5129137.41,1069.21
549045.45,5129135.37,1069.89
549044.91,5129133.35,1070.45
549044.46,5129131.48,1070.20
549043.96,5129129.53,1070.31
549043.48,5129127.61,1070.26
549042.99,5129125.65,1070.32
549042.49,5129123.68,1070.40
549041.96,5129121.65,1070.82
549040.36,5129115.52,1072.11
549039.90,5129113.60,1071.76
549039.38,5129111.58,1071.90
549038.86,5129109.55,1072.18
549037.28,5129103.41,1072.91
549036.72,5129101.30,1073.49
549034.71,5129093.22,1073.21
549034.22,5129091.22,1072.95
549031.70,5129081.00,1072.33
549030.18,5129074.84,1071.71
549029.70,5129072.82,1071.23
549026.74,5129060.49,1068.71
549023.73,5129047.93,1066.16
549022.73,5129043.73,1065.08
549022.21,5129041.59,1064.72
549017.26,5129020.37,1057.57
549016.76,5129018.22,1056.90
549015.74,5129013.87,1055.57
549015.22,5129011.69,1054.91
549015.85,5129004.65,1053.34
549016.38,5129006.87,1053.95
549018.42,5129015.56,1057.06
549019.46,5129019.91,1058.20
549020.96,5129026.30,1060.52
549021.43,5129028.39,1061.63
549023.96,5129038.99,1064.70
549024.46,5129041.10,1065.35
549031.04,5129068.20,1070.89
549032.03,5129072.28,1071.67
549033.99,5129080.35,1073.27
549035.01,5129084.43,1073.48
549035.55,5129086.52,1073.29
549036.04,5129088.51,1073.56
549041.22,5129108.78,1072.69
549041.76,5129110.82,1072.41
549042.27,5129112.81,1072.28
549045.40,5129124.83,1070.51
549045.90,5129126.78,1070.45
549046.39,5129128.70,1070.44
549046.86,5129130.60,1070.55
549047.35,5129132.50,1070.56
549048.37,5129136.42,1069.89
549048.85,5129138.32,1069.87
549050.04,5129139.42,1069.99
549049.56,5129137.51,1070.08
549049.06,5129135.57,1070.31
549048.54,5129133.58,1070.73
549048.07,5129131.70,1070.61
549047.60,5129129.79,1070.54
549047.11,5129127.86,1070.58
549046.64,5129125.94,1070.50
549046.15,5129124.00,1070.50
549045.57,5129121.88,1071.38
549043.49,5129113.82,1072.56
549043.00,5129111.85,1072.52
549040.92,5129103.72,1073.42
549036.82,5129087.44,1073.73
549036.30,5129085.37,1073.75
549034.79,5129079.24,1073.31
549034.30,5129077.21,1072.98
549033.81,5129075.19,1072.61
549032.34,5129069.08,1071.36
549031.84,5129067.02,1071.08
549031.32,5129064.92,1070.89
549029.88,5129058.80,1069.19
549025.32,5129039.85,1065.54
549024.84,5129037.79,1064.71
549022.90,5129029.39,1061.63
549021.40,5129022.98,1059.54
549020.88,5129020.80,1059.09
549017.34,5129005.64,1053.94
549020.80,5129010.46,1055.53
549021.29,5129012.59,1056.48
549021.80,5129014.75,1057.32
549023.32,5129021.21,1059.45
549029.36,5129046.61,1066.98
549029.87,5129048.71,1067.50
549031.38,5129054.95,1068.86
549033.85,5129065.23,1071.30
549034.38,5129067.33,1071.37
549034.85,5129069.34,1072.07
549035.34,5129071.35,1072.55
549035.85,5129073.40,1072.80
549036.35,5129075.45,1073.01
549036.83,5129077.45,1073.53
549037.33,5129079.47,1073.81
549038.32,5129083.49,1074.45
549038.83,5129085.54,1074.54
549039.86,5129089.62,1074.62
549040.88,5129093.66,1074.74
549041.32,5129095.55,1075.40
549044.56,5129107.92,1073.27
549045.09,5129109.96,1073.01
549045.57,5129111.88,1073.23
549048.79,5129124.07,1070.55
549049.28,5129125.99,1070.65
549049.75,5129127.88,1070.80
549050.23,5129129.80,1070.84
549050.72,5129131.72,1070.73
549051.19,5129133.61,1070.83
549051.66,5129135.47,1070.96
549053.68,5129143.21,1069.83
549054.23,5129145.22,1069.10
549056.85,5129154.99,1066.22
549058.84,5129162.54,1064.72
549059.93,5129163.11,1064.71
549055.37,5129145.84,1069.09
549054.85,5129143.88,1069.61
549054.34,5129141.93,1070.06
549052.36,5129134.25,1070.92
549051.89,5129132.36,1070.85
549051.42,5129130.46,1070.84
549050.93,5129128.54,1070.87
549050.46,5129126.64,1070.76
549050.00,5129124.76,1070.53
549046.32,5129110.60,1073.19
549045.81,5129108.61,1073.25
549045.28,5129106.57,1073.61
549044.20,5129102.44,1074.46
549042.60,5129096.24,1075.42
549041.13,5129090.27,1074.79
549040.60,5129088.20,1074.97
549039.61,5129084.16,1074.60
549039.12,5129082.14,1074.38
549038.15,5129078.13,1073.68
549037.14,5129074.04,1073.29
549036.66,5129072.03,1072.86
549032.74,5129055.65,1069.18
549031.23,5129049.38,1068.01
549030.75,5129047.32,1067.28
549029.27,5129041.05,1065.52
549025.25,5129024.05,1060.75
549024.76,5129021.92,1059.97
549024.25,5129019.77,1059.32
549022.25,5129011.17,1056.17
549023.56,5129007.00,1055.31
549025.60,5129015.65,1058.28
549030.06,5129034.68,1065.25
549031.11,5129038.95,1065.92
549031.61,5129041.04,1066.47
549033.12,5129047.33,1068.02
549037.12,5129063.86,1071.64
549038.09,5129067.90,1072.72
549038.58,5129069.92,1073.18
549039.06,5129071.93,1073.76
549039.59,5129074.01,1073.70
549040.58,5129078.06,1074.23
549042.58,5129086.11,1075.20
549043.07,5129088.11,1075.53
549043.58,5129090.13,1075.55
549044.14,5129092.25,1075.06
549044.62,5129094.20,1075.40
549045.63,5129098.21,1075.48
549047.82,5129106.49,1073.79
549048.32,5129108.49,1073.74
549048.79,5129110.39,1074.09
549052.46,5129124.43,1072.00
549053.07,5129126.59,1070.71
549053.52,5129128.45,1071.09
549054.00,5129130.35,1071.08
549054.50,5129132.29,1071.00
549054.97,5129134.16,1071.07
549056.45,5129139.92,1070.61
549056.95,5129141.83,1070.32
549057.98,5129145.72,1069.47
549060.57,5129155.41,1066.99
549061.07,5129157.29,1066.61
549061.58,5129159.21,1066.12
549062.94,5129160.65,1065.69
549062.41,5129158.71,1066.42
549061.94,5129156.87,1066.56
549061.46,5129154.99,1066.84
549059.35,5129147.13,1069.41
549058.86,5129145.23,1069.66
549058.35,5129143.28,1070.15
549057.84,5129141.34,1070.53
549057.34,5129139.41,1070.80
549056.86,5129137.51,1070.87
549056.37,5129135.59,1071.11
549055.90,5129133.72,1071.05
549055.41,5129131.80,1071.13
549054.93,5129129.87,1071.23
549054.47,5129128.00,1071.00
549053.99,5129126.08,1070.97
549053.38,5129123.91,1072.26
549052.85,5129121.90,1072.69
549052.34,5129119.91,1072.94
549049.76,5129109.90,1074.20
549049.30,5129107.98,1073.86
549046.61,5129097.66,1075.87
549045.62,5129093.67,1075.59
549045.13,5129091.68,1075.41
549044.56,5129089.54,1076.06
549044.06,5129087.53,1075.92
549041.61,5129077.47,1074.57
549040.62,5129073.42,1073.98
549039.15,5129067.34,1072.86
549038.65,5129065.27,1072.61
549037.18,5129059.15,1071.20
549034.72,5129048.83,1068.72
549032.71,5129040.44,1066.83
549032.24,5129038.37,1066.04
549031.72,5129036.23,1065.65
549030.23,5129029.91,1063.78
549025.76,5129010.72,1057.05
549025.25,5129008.55,1056.38
549027.70,5129009.01,1056.86
549028.20,5129011.16,1057.71
549029.20,5129015.44,1059.37
549032.72,5129030.32,1064.33
549033.21,5129032.42,1064.99
549035.20,5129040.77,1067.63
549037.75,5129051.26,1069.68
549038.25,5129053.32,1070.13
549038.75,5129055.39,1070.61
549039.25,5129057.44,1071.04
549040.22,5129061.49,1072.23
549041.73,5129067.66,1073.14
549043.69,5129075.73,1074.81
549045.18,5129081.74,1075.62
549045.71,5129083.82,1075.52
549046.18,5129085.77,1075.98
549046.69,5129087.81,1076.05
549047.20,5129089.81,1076.11
549050.91,5129104.12,1074.49
549051.43,5129106.12,1074.36
549051.93,5129108.10,1074.33
549052.45,5129110.10,1074.07
549052.95,5129112.06,1074.12
549055.54,5129122.00,1072.86
549056.07,5129124.01,1072.45
549056.63,5129126.06,1071.68
549057.19,5129128.12,1070.96
549057.62,5129129.93,1071.40
549058.11,5129131.85,1071.36
549058.60,5129133.76,1071.25
549059.08,5129135.65,1071.29
549059.54,5129137.49,1071.44
549060.01,5129139.36,1071.53
549060.52,5129141.29,1071.10
549061.10,5129143.35,1070.05
549062.58,5129149.02,1069.33
549063.68,5129153.01,1067.64
549066.14,5129162.36,1065.92
549061.72,5129141.99,1070.72
549061.18,5129139.99,1071.37
549060.71,5129138.12,1071.38
549060.23,5129136.21,1071.47
549059.77,5129134.35,1071.32
549059.28,5129132.42,1071.45
549058.80,5129130.51,1071.45
549058.36,5129128.67,1071.07
549057.79,5129126.58,1071.97
549057.27,5129124.58,1072.33
549056.72,5129122.53,1072.96
549056.21,5129120.54,1073.21
549052.63,5129106.56,1074.54
549052.11,5129104.53,1074.72
549051.60,5129102.52,1074.90
549049.46,5129094.26,1076.17
549048.45,5129090.22,1076.09
549047.43,5129086.14,1076.11
549046.94,5129084.14,1075.85
549046.45,5129082.13,1075.60
549044.45,5129073.98,1074.78
549043.94,5129071.93,1074.58
549042.49,5129065.85,1073.19
549040.00,5129055.53,1071.28
549039.52,5129053.50,1070.66
549039.03,5129051.43,1070.16
549038.52,5129049.34,1069.81
549036.52,5129040.96,1067.92
549035.55,5129036.80,1066.53
549032.57,5129024.11,1062.64
549031.06,5129017.68,1060.60
549030.56,5129015.54,1059.87
549029.09,5129009.12,1057.16
549030.60,5129005.98,1056.89
549031.10,5129008.15,1057.72
549032.59,5129014.56,1060.39
549034.14,5129021.02,1062.27
549037.16,5129033.72,1066.20
549037.64,5129035.79,1066.95
549038.18,5129037.95,1067.22
549038.68,5129040.03,1067.77
549039.19,5129042.14,1068.29
549039.68,5129044.21,1068.88
549040.19,5129046.31,1069.36
549040.69,5129048.38,1069.84
549041.19,5129050.46,1070.36
549043.17,5129058.68,1072.36
549043.64,5129060.68,1073.12
549046.15,5129070.90,1074.84
549046.65,5129072.92,1075.14
549050.18,5129087.10,1076.39
549050.68,5129089.09,1076.57
549051.22,5129091.17,1076.35
549051.73,5129093.17,1076.34
549053.87,5129101.38,1075.21
549054.39,5129103.40,1075.10
549058.53,5129119.36,1073.46
549061.16,5129129.33,1071.44
549061.64,5129131.21,1071.54
549062.09,5129133.05,1071.77
549062.58,5129134.96,1071.67
549063.06,5129136.83,1071.62
549063.54,5129138.71,1071.63
549069.60,5129161.60,1066.79
549069.89,5129159.22,1067.44
549064.92,5129140.25,1071.41
549064.43,5129138.35,1071.64
549063.96,5129136.48,1071.68
